0.450000 0.100400 -0.090700  -0.384000 -0.320000 0.856000
0.400000 0.050200 -0.114800  -0.552000 0.256000 0.784000
0.415000 0.100400 -0.121900  -0.640000 0.192000 0.736000
0.400000 0.072600 -0.121900  -0.632000 0.256000 0.720000
0.400000 0.100400 -0.150800  -0.768000 0.376000 0.512000
0.393200 0.050200 -0.121900  -0.648000 0.352000 0.664000
0.381500 0.100400 -0.182900  -0.896000 0.440000 -0.008000
0.357200 0.050200 -0.182900  -0.736000 0.640000 0.184000
0.400000 0.100400 -0.207800  -0.424000 0.688000 -0.576000
0.351400 0.050200 -0.243900  -0.480000 0.768000 -0.416000
0.400000 0.083700 -0.243900  -0.328000 0.768000 -0.536000
0.400000 0.050200 -0.294000  -0.352000 0.672000 -0.640000
0.351400 0.050200 -0.243900  -0.480000 0.768000 -0.416000
0.400000 0.041200 -0.304800  -0.352000 0.672000 -0.648000
0.350000 0.049300 -0.243900  -0.512000 0.784000 -0.320000
0.350000 0.024300 -0.304800  -0.456000 0.784000 -0.408000
0.300000 0.032100 -0.243900  -0.576000 0.680000 -0.432000
0.301400 0.000000 -0.304800  -0.584000 0.656000 -0.464000
0.300000 0.000000 -0.302400  -0.544000 0.608000 -0.568000
0.300000 -0.003100 -0.304800  -0.376000 0.424000 -0.816000
0.301400 0.000000 -0.304800  -0.584000 0.656000 -0.464000
0.300000 -0.050200 -0.319900  -0.536000 0.224000 -0.808000
0.350000 0.000000 -0.339100  -0.264000 0.552000 -0.784000
0.342100 -0.050200 -0.365800  -0.640000 -0.104000 -0.752000
0.350000 -0.037900 -0.365800  -0.440000 0.432000 -0.776000
0.350000 -0.050200 -0.374000  -0.496000 -0.096000 -0.856000
0.383500 -0.050200 -0.365800  0.200000 -0.288000 -0.928000
0.350000 -0.059800 -0.365800  -0.280000 -0.560000 -0.768000
0.400000 -0.050200 -0.360800  0.184000 -0.432000 -0.872000
0.350000 -0.100400 -0.331300  -0.432000 -0.520000 -0.728000
0.400000 -0.100400 -0.340000  -0.040000 -0.360000 -0.928000
0.350000 -0.127600 -0.304800  0.032000 -0.600000 -0.792000
0.400000 -0.150600 -0.318400  -0.432000 -0.416000 -0.792000
0.380400 -0.150600 -0.304800  -0.424000 -0.456000 -0.776000
0.400000 -0.168700 -0.304800  -0.504000 -0.464000 -0.720000
0.350000 -0.150600 -0.283600  -0.064000 -0.424000 -0.896000
0.400000 -0.200800 -0.276700  0.448000 -0.472000 -0.752000
0.350000 -0.200800 -0.271400  0.216000 0.224000 -0.944000
0.400000 -0.249400 -0.243900  0.760000 -0.472000 -0.424000
0.350000 -0.228300 -0.304800  0.616000 0.528000 -0.576000
0.399000 -0.251000 -0.243900  0.912000 -0.008000 -0.392000
0.366700 -0.251000 -0.304800  0.704000 0.488000 -0.496000
0.350000 -0.228300 -0.304800  0.616000 0.528000 -0.576000
0.350000 -0.251000 -0.329500  0.536000 0.472000 -0.688000
0.320800 -0.200800 -0.304800  0.496000 0.328000 -0.800000
0.300000 -0.251000 -0.347800  0.304000 0.384000 -0.864000
0.300000 -0.200800 -0.324200  0.480000 0.248000 -0.832000
0.320800 -0.200800 -0.304800  0.496000 0.328000 -0.800000
0.300000 -0.150600 -0.312600  0.312000 -0.200000 -0.920000
0.313400 -0.150600 -0.304800  0.400000 -0.360000 -0.840000
0.300000 -0.100400 -0.310000  -0.248000 0.072000 -0.960000
0.350000 -0.127600 -0.304800  0.032000 -0.600000 -0.792000
0.350000 -0.100400 -0.331300  -0.432000 -0.520000 -0.728000
0.300000 -0.100400 -0.310000  -0.248000 0.072000 -0.960000
0.350000 -0.059800 -0.365800  -0.280000 -0.560000 -0.768000
0.300000 -0.050200 -0.319900  -0.536000 0.224000 -0.808000
0.342100 -0.050200 -0.365800  -0.640000 -0.104000 -0.752000
0.350000 -0.059800 -0.365800  -0.280000 -0.560000 -0.768000
0.350000 -0.050200 -0.374000  -0.496000 -0.096000 -0.856000
0.350000 -0.050200 -0.374000  -0.496000 -0.096000 -0.856000
0.650000 0.080100 0.121900  -0.576000 -0.640000 0.496000
0.650000 0.080100 0.121900  -0.576000 -0.640000 0.496000
0.692100 0.050200 0.121900  -0.432000 -0.784000 0.424000
0.650000 0.050200 0.073400  -0.576000 -0.624000 0.512000
0.700000 0.046100 0.121900  -0.152000 -0.904000 0.376000
0.650000 0.041800 0.060900  -0.568000 -0.648000 0.504000
0.700000 0.026800 0.060900  -0.288000 -0.896000 0.328000
0.650000 0.013100 0.000000  -0.448000 -0.792000 0.392000
0.700000 0.012000 0.000000  -0.032000 -0.960000 0.272000
0.650000 0.000000 -0.040500  0.104000 -0.944000 0.296000
0.700000 0.001400 -0.060900  0.088000 -0.968000 0.192000
0.686800 0.000000 -0.060900  0.208000 -0.960000 0.144000
0.700000 0.000400 -0.121900  0.224000 -0.968000 0.032000
0.698200 0.000000 -0.121900  0.296000 -0.952000 0.032000
0.700000 0.009000 -0.182900  0.456000 -0.744000 -0.472000
0.687300 0.000000 -0.182900  0.648000 -0.600000 -0.456000
0.700000 0.050200 -0.225700  0.368000 -0.368000 -0.848000
0.653800 0.000000 -0.243900  0.576000 -0.112000 -0.808000
0.653800 0.050200 -0.243900  0.232000 0.032000 -0.968000
0.653800 0.050200 -0.243900  0.232000 0.032000 -0.968000
0.750000 0.233400 0.121900  0.720000 0.680000 -0.080000
0.750000 0.233400 0.121900  0.720000 0.680000 -0.080000
0.788900 0.200800 0.121900  0.632000 0.744000 0.184000
0.750000 0.222200 0.060900  0.704000 0.696000 -0.080000
0.772600 0.200800 0.060900  0.648000 0.736000 -0.136000
0.750000 0.219200 0.000000  0.672000 0.728000 0.080000
0.770200 0.200800 0.000000  0.616000 0.776000 0.056000
0.750000 0.228900 -0.060900  0.576000 0.696000 -0.416000
0.787300 0.200800 -0.060900  0.520000 0.824000 -0.184000
0.750000 0.200800 -0.104400  0.480000 0.680000 -0.544000
0.800000 0.194300 -0.060900  0.416000 0.824000 -0.360000
0.750000 0.186400 -0.121900  0.504000 0.648000 -0.560000
0.800000 0.164900 -0.121900  0.312000 0.800000 -0.504000
0.750000 0.157000 -0.182900  0.280000 0.720000 -0.624000
0.800000 0.150600 -0.164100  0.256000 0.800000 -0.528000
0.769100 0.150600 -0.182900  0.248000 0.704000 -0.648000
0.800000 0.138600 -0.182900  0.232000 0.712000 -0.656000
0.750000 0.150600 -0.191500  0.256000 0.656000 -0.704000
0.800000 0.100400 -0.216300  0.104000 0.416000 -0.896000
0.750000 0.100400 -0.218500  0.200000 0.232000 -0.944000
0.800000 0.050200 -0.233400  -0.176000 0.416000 -0.880000
0.750000 0.050200 -0.223600  -0.168000 -0.552000 -0.808000
0.800000 0.000000 -0.217200  -0.656000 -0.464000 -0.584000
0.750000 0.019900 -0.182900  -0.176000 -0.792000 -0.576000
0.776700 0.000000 -0.182900  -0.576000 -0.728000 -0.360000
0.750000 0.004300 -0.121900  -0.408000 -0.880000 -0.216000
0.756600 0.000000 -0.121900  -0.496000 -0.856000 -0.080000
0.750000 0.001600 -0.060900  -0.416000 -0.904000 -0.016000
0.753100 0.000000 -0.060900  -0.472000 -0.872000 0.000000
0.750000 0.013300 0.000000  -0.240000 -0.936000 0.240000
0.772100 0.000000 0.000000  -0.504000 -0.832000 0.224000
0.750000 0.031700 0.060900  -0.136000 -0.928000 0.336000
0.798100 0.000000 0.060900  -0.504000 -0.792000 0.312000
0.772100 0.000000 0.000000  -0.504000 -0.832000 0.224000
0.800000 -0.001000 0.060900  -0.584000 -0.776000 0.216000
0.800000 -0.015400 0.000000  -0.560000 -0.800000 0.184000
0.843600 -0.050200 0.060900  -0.704000 -0.672000 0.184000
0.832800 -0.050200 0.000000  -0.728000 -0.656000 0.144000
0.800000 -0.015400 0.000000  -0.560000 -0.800000 0.184000
0.823600 -0.050200 -0.060900  -0.736000 -0.664000 0.112000
0.800000 -0.024700 -0.060900  -0.616000 -0.776000 0.088000
0.818400 -0.050200 -0.121900  -0.760000 -0.640000 0.016000
0.800000 -0.027900 -0.121900  -0.664000 -0.736000 -0.072000
0.822900 -0.050200 -0.182900  -0.792000 -0.592000 -0.088000
0.800000 -0.017800 -0.182900  -0.616000 -0.680000 -0.376000
0.835300 -0.050200 -0.243900  -0.840000 -0.416000 -0.336000
0.800000 0.000000 -0.217200  -0.656000 -0.464000 -0.584000
0.819700 0.000000 -0.243900  -0.752000 -0.192000 -0.616000
0.819700 0.000000 -0.243900  -0.752000 -0.192000 -0.616000
0.788900 0.200800 0.121900  0.632000 0.744000 0.184000
0.788900 0.200800 0.121900  0.632000 0.744000 0.184000
0.800000 0.190400 0.121900  0.624000 0.752000 0.168000
0.772600 0.200800 0.060900  0.648000 0.736000 -0.136000
0.800000 0.182100 0.060900  0.560000 0.824000 -0.024000
0.770200 0.200800 0.000000  0.616000 0.776000 0.056000
0.800000 0.184600 0.000000  0.464000 0.872000 0.120000
0.787300 0.200800 -0.060900  0.520000 0.824000 -0.184000
0.800000 0.194300 -0.060900  0.416000 0.824000 -0.360000
0.800000 0.194300 -0.060900  0.416000 0.824000 -0.360000
0.800000 0.028400 0.121900  -0.376000 -0.808000 0.432000
0.800000 0.028400 0.121900  -0.376000 -0.808000 0.432000
0.829700 0.000000 0.121900  -0.704000 -0.616000 0.344000
0.800000 0.000000 0.064400  -0.576000 -0.736000 0.344000
0.800000 0.000000 0.064400  -0.576000 -0.736000 0.344000
0.911800 0.100400 0.121900  0.528000 0.800000 0.264000
0.911800 0.100400 0.121900  0.528000 0.800000 0.264000
0.950000 0.069700 0.121900  0.360000 0.840000 0.384000
0.936800 0.100400 0.060900  0.456000 0.872000 0.168000
0.950000 0.091300 0.060900  0.600000 0.776000 0.176000
0.950000 0.100400 0.012800  0.496000 0.848000 0.136000
1.000000 0.068400 0.060900  0.464000 0.872000 0.104000
0.952900 0.100400 0.000000  0.504000 0.848000 0.120000
1.000000 0.075000 0.000000  0.472000 0.872000 0.072000
0.957800 0.100400 -0.060900  0.544000 0.824000 -0.120000
1.000000 0.074600 -0.060900  0.496000 0.816000 -0.280000
1.000000 0.074600 -0.060900  0.496000 0.816000 -0.280000
0.950000 -0.142500 0.121900  -0.608000 -0.672000 0.392000
0.950000 -0.142500 0.121900  -0.608000 -0.672000 0.392000
0.950000 -0.150600 0.094900  -0.648000 -0.696000 0.272000
0.900000 -0.107100 0.121900  -0.584000 -0.768000 0.240000
0.942000 -0.150600 0.060900  -0.704000 -0.672000 0.200000
0.900000 -0.117100 0.060900  -0.656000 -0.736000 0.136000
0.931300 -0.150600 0.000000  -0.640000 -0.744000 0.144000
0.900000 -0.125700 0.000000  -0.664000 -0.728000 0.136000
0.917800 -0.150600 -0.060900  -0.640000 -0.736000 0.184000
0.900000 -0.135500 -0.060900  -0.672000 -0.712000 0.168000
0.902600 -0.150600 -0.121900  -0.664000 -0.736000 0.096000
0.900000 -0.148200 -0.121900  -0.664000 -0.728000 0.088000
0.900000 -0.150600 -0.145400  -0.696000 -0.704000 0.104000
0.902600 -0.150600 -0.121900  -0.664000 -0.736000 0.096000
0.900000 -0.155900 -0.182900  -0.744000 -0.648000 0.112000
0.950000 -0.200400 -0.121900  -0.720000 -0.672000 0.136000
0.939100 -0.200800 -0.182900  -0.712000 -0.672000 0.160000
0.950000 -0.200800 -0.124000  -0.680000 -0.712000 0.160000
0.950000 -0.211700 -0.182900  -0.704000 -0.680000 0.176000
0.939100 -0.200800 -0.182900  -0.712000 -0.672000 0.160000
0.950000 -0.224400 -0.243900  -0.688000 -0.640000 0.328000
0.928800 -0.200800 -0.243900  -0.736000 -0.616000 0.240000
0.939100 -0.200800 -0.182900  -0.712000 -0.672000 0.160000
0.900000 -0.163000 -0.243900  -0.816000 -0.552000 0.128000
0.900000 -0.155900 -0.182900  -0.744000 -0.648000 0.112000
0.890800 -0.150600 -0.243900  -0.848000 -0.512000 0.064000
0.895100 -0.150600 -0.182900  -0.744000 -0.648000 0.104000
0.900000 -0.155900 -0.182900  -0.744000 -0.648000 0.112000
0.900000 -0.150600 -0.145400  -0.696000 -0.704000 0.104000
0.900000 -0.150600 -0.145400  -0.696000 -0.704000 0.104000
0.950000 -0.150600 0.094900  -0.648000 -0.696000 0.272000
0.950000 -0.150600 0.094900  -0.648000 -0.696000 0.272000
0.950000 -0.158100 0.060900  -0.608000 -0.760000 0.200000
0.942000 -0.150600 0.060900  -0.704000 -0.672000 0.200000
0.950000 -0.168100 0.000000  -0.640000 -0.744000 0.184000
0.931300 -0.150600 0.000000  -0.640000 -0.744000 0.144000
0.950000 -0.183700 -0.060900  -0.632000 -0.728000 0.232000
0.917800 -0.150600 -0.060900  -0.640000 -0.736000 0.184000
0.950000 -0.200400 -0.121900  -0.720000 -0.672000 0.136000
0.902600 -0.150600 -0.121900  -0.664000 -0.736000 0.096000
0.902600 -0.150600 -0.121900  -0.664000 -0.736000 0.096000
1.000000 0.053600 0.121900  0.280000 0.872000 0.392000
1.000000 0.053600 0.121900  0.280000 0.872000 0.392000
0.950000 0.069700 0.121900  0.360000 0.840000 0.384000
1.000000 0.068400 0.060900  0.464000 0.872000 0.104000
0.950000 0.091300 0.060900  0.600000 0.776000 0.176000
0.950000 0.091300 0.060900  0.600000 0.776000 0.176000
-1.000000 -0.090800 0.060900  -0.320000 -0.912000 0.248000
-1.000000 -0.090800 0.060900  -0.320000 -0.912000 0.248000
-0.973400 -0.100400 0.060900  -0.344000 -0.904000 0.240000
-1.000000 -0.100400 0.014600  -0.304000 -0.920000 0.208000
-1.000000 -0.100400 0.014600  -0.304000 -0.920000 0.208000
-0.950000 0.258900 0.000000  0.296000 0.848000 0.432000
-0.950000 0.258900 0.000000  0.296000 0.848000 0.432000
-0.928700 0.251000 0.000000  0.312000 0.848000 0.408000
-0.950000 0.251000 0.016800  0.288000 0.808000 0.504000
-0.950000 0.251000 0.016800  0.288000 0.808000 0.504000
-0.900000 -0.149700 0.060900  -0.696000 -0.664000 0.232000
-0.900000 -0.149700 0.060900  -0.696000 -0.664000 0.232000
-0.899200 -0.150600 0.060900  -0.816000 -0.504000 0.256000
-0.900000 -0.150600 0.057700  -0.744000 -0.616000 0.232000
-0.900000 -0.150600 0.057700  -0.744000 -0.616000 0.232000
-0.750000 0.106000 0.060900  0.496000 0.464000 0.728000
-0.750000 0.106000 0.060900  0.496000 0.464000 0.728000
-0.796300 0.150600 0.060900  0.512000 0.584000 0.616000
-0.750000 0.150600 0.014500  0.472000 0.624000 0.608000
-0.750000 0.150600 0.014500  0.472000 0.624000 0.608000
-0.750800 -0.401700 0.000000  -0.816000 -0.520000 0.208000
-0.750800 -0.401700 0.000000  -0.816000 -0.520000 0.208000
-0.750000 -0.401700 0.004100  -0.816000 -0.520000 0.232000
-0.750000 -0.403200 0.000000  -0.832000 -0.504000 0.216000
-0.750000 -0.403200 0.000000  -0.832000 -0.504000 0.216000
-0.700000 0.051600 0.060900  0.528000 0.416000 0.728000
-0.700000 0.051600 0.060900  0.528000 0.416000 0.728000
-0.744800 0.100400 0.060900  0.496000 0.456000 0.728000
-0.700000 0.100400 0.019100  0.504000 0.504000 0.688000
-0.700000 0.100400 0.019100  0.504000 0.504000 0.688000
-0.700000 0.121800 0.000000  0.536000 0.544000 0.632000
-0.700000 0.121800 0.000000  0.536000 0.544000 0.632000
-0.680200 0.100400 0.000000  0.600000 0.440000 0.656000
-0.700000 0.100400 0.019100  0.504000 0.504000 0.688000
-0.700000 0.100400 0.019100  0.504000 0.504000 0.688000
-0.650000 -0.023500 0.060900  0.576000 0.360000 0.720000
-0.650000 -0.023500 0.060900  0.576000 0.360000 0.720000
-0.666100 0.000000 0.060900  0.560000 0.376000 0.728000
-0.650000 0.000000 0.045200  0.576000 0.400000 0.704000
-0.650000 0.000000 0.045200  0.576000 0.400000 0.704000
-0.650000 0.063100 0.000000  0.592000 0.392000 0.696000
-0.650000 0.063100 0.000000  0.592000 0.392000 0.696000
-0.641800 0.050200 0.000000  0.616000 0.400000 0.664000
-0.650000 0.050200 0.008200  0.568000 0.384000 0.720000
-0.650000 0.050200 0.008200  0.568000 0.384000 0.720000
-0.650000 -0.495900 0.060900  -0.528000 -0.720000 0.432000
-0.650000 -0.495900 0.060900  -0.528000 -0.720000 0.432000
-0.640700 -0.502100 0.060900  -0.496000 -0.728000 0.456000
-0.650000 -0.502100 0.048300  -0.536000 -0.712000 0.440000
-0.650000 -0.502100 0.048300  -0.536000 -0.712000 0.440000
-0.633400 -0.552300 0.000000  -0.384000 -0.672000 0.624000
-0.633400 -0.552300 0.000000  -0.384000 -0.672000 0.624000
-0.600000 -0.552300 0.023900  -0.224000 -0.776000 0.584000
-0.600000 -0.566300 0.000000  -0.184000 -0.816000 0.544000
-0.550000 -0.552300 0.031000  0.256000 -0.800000 0.528000
-0.550000 -0.565800 0.000000  0.224000 -0.872000 0.424000
-0.509600 -0.552300 0.000000  0.320000 -0.840000 0.424000
-0.509600 -0.552300 0.000000  0.320000 -0.840000 0.424000
-0.600000 -0.018300 0.000000  0.712000 0.368000 0.584000
-0.600000 -0.018300 0.000000  0.712000 0.368000 0.584000
-0.584800 -0.050200 0.000000  0.744000 0.336000 0.568000
-0.600000 -0.050200 0.018400  0.648000 0.320000 0.688000
-0.600000 -0.050200 0.018400  0.648000 0.320000 0.688000
-0.472400 -0.150600 0.060900  -0.464000 0.768000 0.416000
-0.472400 -0.150600 0.060900  -0.464000 0.768000 0.416000
-0.500000 -0.166600 0.060900  -0.304000 0.832000 0.448000
-0.500000 -0.150600 0.019400  -0.216000 0.856000 0.464000
-0.500000 -0.150600 0.019400  -0.216000 0.856000 0.464000
-0.434300 -0.100400 0.000000  -0.648000 0.720000 0.208000
-0.434300 -0.100400 0.000000  -0.648000 0.720000 0.208000
-0.405500 -0.100400 0.060900  -0.712000 0.456000 0.520000
-0.400000 -0.050900 0.000000  -0.776000 0.576000 0.224000
-0.400000 -0.090100 0.060900  -0.696000 0.400000 0.584000
-0.399300 -0.050200 0.000000  -0.696000 0.680000 0.184000
-0.367400 -0.050200 0.060900  -0.696000 0.408000 0.584000
-0.367400 -0.050200 0.060900  -0.696000 0.408000 0.584000
-0.355100 0.050200 0.000000  -0.872000 0.216000 0.416000
-0.355100 0.050200 0.000000  -0.872000 0.216000 0.416000
-0.350000 0.077100 0.000000  -0.776000 0.256000 0.568000
-0.350000 0.050200 0.010900  -0.568000 0.448000 0.680000
-0.321000 0.100400 0.000000  -0.264000 0.416000 0.864000
-0.300000 0.050200 0.038600  -0.224000 0.544000 0.800000
-0.300000 0.100400 0.006400  -0.200000 0.408000 0.880000
-0.250000 0.050200 0.048300  0.000000 0.552000 0.832000
-0.250000 0.100400 0.002600  0.144000 0.496000 0.848000
-0.250000 0.100400 0.002600  0.144000 0.496000 0.848000
-0.350000 0.000000 0.059800  -0.688000 0.400000 0.592000
-0.350000 0.000000 0.059800  -0.688000 0.400000 0.592000
-0.350000 0.050200 0.010900  -0.568000 0.448000 0.680000
-0.373100 0.000000 0.000000  -0.880000 0.240000 0.392000
-0.355100 0.050200 0.000000  -0.872000 0.216000 0.416000
-0.377800 0.000000 -0.060900  -0.864000 0.424000 -0.248000
-0.358600 0.050200 -0.060900  -0.920000 0.168000 -0.328000
-0.372200 0.000000 -0.121900  -0.848000 0.480000 -0.200000
-0.350000 0.050200 -0.078800  -0.832000 0.272000 -0.472000
-0.350000 0.031200 -0.121900  -0.744000 0.552000 -0.352000
-0.335400 0.050200 -0.121900  -0.752000 0.472000 -0.456000
-0.350000 0.000000 -0.171400  -0.688000 0.416000 -0.584000
-0.301000 0.050200 -0.182900  -0.704000 0.472000 -0.512000
-0.340600 0.000000 -0.182900  -0.696000 0.480000 -0.520000
-0.350000 0.000000 -0.171400  -0.688000 0.416000 -0.584000
-0.350000 -0.016600 -0.182900  -0.688000 0.360000 -0.616000
-0.372200 0.000000 -0.121900  -0.848000 0.480000 -0.200000
-0.365500 -0.050200 -0.182900  -0.728000 0.384000 -0.560000
-0.399400 -0.050200 -0.121900  -0.760000 0.504000 -0.392000
-0.400000 -0.096400 -0.182900  -0.664000 0.552000 -0.496000
-0.400000 -0.050900 -0.121900  -0.736000 0.536000 -0.408000
-0.403600 -0.100400 -0.182900  -0.616000 0.592000 -0.512000
-0.434900 -0.100400 -0.121900  -0.608000 0.744000 -0.256000
-0.434900 -0.100400 -0.121900  -0.608000 0.744000 -0.256000
-0.350000 0.000000 0.059800  -0.688000 0.400000 0.592000
-0.350000 0.000000 0.059800  -0.688000 0.400000 0.592000
-0.350000 0.050200 0.010900  -0.568000 0.448000 0.680000
-0.348200 0.000000 0.060900  -0.376000 0.448000 0.800000
-0.300000 0.050200 0.038600  -0.224000 0.544000 0.800000
-0.300000 0.027200 0.060900  -0.160000 0.552000 0.808000
-0.250000 0.050200 0.048300  0.000000 0.552000 0.832000
-0.250000 0.033500 0.060900  0.056000 0.528000 0.840000
-0.200000 0.050200 0.037800  0.512000 0.448000 0.720000
-0.200000 0.020500 0.060900  0.664000 0.440000 0.600000
-0.200000 0.020500 0.060900  0.664000 0.440000 0.600000
-0.208400 0.401700 0.000000  -0.424000 0.248000 0.864000
-0.208400 0.401700 0.000000  -0.424000 0.248000 0.864000
-0.200000 0.408700 0.000000  -0.112000 0.496000 0.856000
-0.200000 0.401700 0.005100  -0.168000 0.288000 0.936000
-0.185900 0.401700 0.000000  0.264000 0.248000 0.928000
-0.200000 0.384800 0.000000  -0.112000 -0.232000 0.960000
-0.150000 0.401700 -0.011900  0.240000 0.256000 0.928000
-0.200000 0.351500 -0.009600  0.208000 -0.208000 0.952000
-0.150000 0.351500 -0.029900  0.096000 -0.168000 0.976000
-0.200000 0.301200 -0.022600  0.056000 -0.176000 0.976000
-0.150000 0.301200 -0.033800  0.040000 -0.024000 0.992000
-0.200000 0.251000 -0.048300  -0.120000 -0.296000 0.944000
-0.150000 0.251000 -0.027500  -0.136000 -0.104000 0.984000
-0.200000 0.206100 -0.060900  -0.448000 -0.184000 0.872000
-0.150000 0.200800 -0.027500  -0.320000 -0.168000 0.928000
-0.198000 0.200800 -0.060900  -0.464000 0.288000 0.832000
-0.150000 0.150600 -0.037800  0.256000 -0.016000 0.960000
-0.200000 0.199100 -0.060900  -0.320000 0.504000 0.792000
-0.200000 0.150600 -0.023100  -0.360000 0.472000 0.792000
-0.250000 0.177000 -0.060900  -0.096000 0.568000 0.808000
-0.250000 0.150600 -0.042200  0.008000 0.568000 0.816000
-0.277600 0.200800 -0.060900  0.584000 -0.072000 0.800000
-0.300000 0.150600 -0.036000  -0.360000 0.064000 0.920000
-0.300000 0.200800 -0.040500  0.440000 0.208000 0.864000
-0.346000 0.150600 -0.060900  -0.768000 -0.144000 0.616000
-0.350000 0.200800 -0.003200  -0.528000 -0.104000 0.832000
-0.350000 0.153200 -0.060900  -0.608000 -0.784000 0.016000
-0.368900 0.200800 -0.060900  -0.952000 0.040000 -0.280000
-0.350000 0.200800 -0.076700  -0.368000 -0.104000 -0.920000
-0.356100 0.251000 -0.060900  -0.936000 0.104000 -0.312000
-0.350000 0.251000 -0.067500  -0.624000 0.048000 -0.768000
-0.353500 0.301200 -0.060900  -0.872000 0.080000 -0.464000
-0.350000 0.301200 -0.064600  -0.624000 0.064000 -0.768000
-0.350000 0.329400 -0.060900  -0.960000 0.152000 -0.224000
-0.300000 0.301200 -0.089300  -0.344000 0.056000 -0.936000
-0.344500 0.351500 -0.060900  -0.776000 0.288000 0.552000
-0.300000 0.351500 -0.083400  -0.432000 0.176000 -0.880000
-0.307400 0.401700 -0.060900  -0.696000 0.688000 -0.152000
-0.300000 0.401700 -0.066400  -0.448000 0.440000 -0.768000
-0.300000 0.408800 -0.060900  -0.664000 0.712000 -0.184000
-0.250000 0.401700 -0.091800  -0.416000 0.456000 -0.776000
-0.250000 0.447500 -0.060900  -0.512000 0.744000 0.408000
-0.208300 0.401700 -0.121900  -0.432000 0.432000 -0.784000
-0.242600 0.451900 -0.060900  -0.440000 0.728000 0.512000
-0.200000 0.409200 -0.121900  -0.400000 0.464000 -0.776000
-0.200000 0.451900 -0.081300  -0.400000 0.504000 -0.752000
-0.152100 0.451900 -0.121900  -0.424000 0.536000 -0.720000
-0.200000 0.477600 -0.060900  -0.544000 0.808000 -0.208000
-0.150000 0.453400 -0.121900  -0.320000 0.624000 -0.704000
-0.150000 0.501300 -0.060900  -0.376000 0.880000 -0.280000
-0.100000 0.479800 -0.121900  -0.288000 0.584000 -0.752000
-0.146800 0.502100 -0.060900  -0.272000 0.960000 0.016000
-0.100000 0.502100 -0.081300  -0.184000 0.840000 -0.488000
-0.100000 0.517800 -0.060900  -0.120000 0.976000 0.136000
-0.050000 0.502100 -0.117100  -0.040000 0.912000 -0.392000
-0.050000 0.515300 -0.060900  0.432000 0.792000 0.408000
-0.033200 0.502100 -0.060900  0.616000 0.496000 0.600000
-0.050000 0.502100 -0.046900  0.400000 0.496000 0.760000
-0.023600 0.451900 -0.060900  0.376000 0.152000 0.904000
-0.050000 0.451900 -0.049700  0.432000 0.024000 0.896000
-0.005200 0.401700 -0.060900  0.264000 0.168000 0.944000
-0.050000 0.401700 -0.052300  0.176000 0.040000 0.976000
0.000000 0.393800 -0.060900  0.224000 0.176000 0.952000
-0.050000 0.351500 -0.043600  0.248000 0.032000 0.960000
0.000000 0.351500 -0.051600  0.280000 -0.248000 0.920000
-0.050000 0.301200 -0.044600  0.440000 -0.008000 0.896000
0.000000 0.334500 -0.060900  0.312000 -0.368000 0.864000
-0.027600 0.301200 -0.060900  0.456000 -0.208000 0.856000
0.000000 0.301200 -0.076500  0.296000 -0.272000 0.904000
-0.035000 0.251000 -0.060900  0.512000 -0.448000 0.728000
0.000000 0.251000 -0.086600  0.344000 -0.360000 0.864000
-0.050000 0.236000 -0.060900  0.536000 -0.496000 0.672000
0.000000 0.211400 -0.121900  0.496000 -0.712000 0.480000
-0.050000 0.200800 -0.090500  0.520000 -0.520000 0.672000
-0.012800 0.200800 -0.121900  0.688000 -0.616000 0.376000
-0.050000 0.170300 -0.121900  0.584000 -0.576000 0.560000
0.000000 0.200800 -0.169000  0.576000 -0.744000 0.320000
-0.050000 0.150600 -0.159500  0.712000 -0.480000 0.504000
0.000000 0.195100 -0.182900  0.504000 -0.656000 -0.544000
-0.033200 0.150600 -0.182900  0.832000 -0.552000 -0.016000
0.000000 0.200800 -0.186400  0.272000 -0.456000 -0.840000
-0.050000 0.150600 -0.210200  0.840000 -0.208000 -0.496000
-0.050000 0.200800 -0.204500  0.304000 -0.328000 -0.888000
-0.077600 0.150600 -0.243900  0.320000 0.328000 -0.880000
-0.100000 0.200800 -0.221500  0.056000 0.392000 -0.912000
-0.100000 0.164100 -0.243900  -0.032000 0.432000 -0.896000
-0.150000 0.200800 -0.199200  -0.328000 0.272000 -0.896000
-0.126800 0.150600 -0.243900  -0.208000 0.496000 -0.832000
-0.150000 0.150600 -0.235500  -0.296000 0.536000 -0.784000
-0.150000 0.141700 -0.243900  -0.352000 0.528000 -0.768000
-0.200000 0.150600 -0.197300  -0.488000 0.464000 -0.728000
-0.198500 0.100400 -0.243900  -0.376000 0.480000 -0.784000
-0.200000 0.100400 -0.242800  -0.520000 0.512000 -0.672000
-0.200000 0.099300 -0.243900  -0.456000 0.488000 -0.736000
-0.249100 0.100400 -0.182900  -0.576000 0.496000 -0.640000
-0.250000 0.055800 -0.243900  -0.560000 0.648000 -0.504000
-0.250000 0.099600 -0.182900  -0.488000 0.616000 -0.608000
-0.256300 0.050200 -0.243900  -0.592000 0.624000 -0.488000
-0.300000 0.052000 -0.182900  -0.664000 0.464000 -0.568000
-0.300000 0.050200 -0.185100  -0.648000 0.560000 -0.504000
-0.256300 0.050200 -0.243900  -0.592000 0.624000 -0.488000
-0.300000 0.001800 -0.243900  -0.496000 0.680000 -0.520000
-0.250000 0.050200 -0.254100  -0.584000 0.656000 -0.464000
-0.300000 0.000000 -0.248500  -0.656000 0.560000 -0.488000
-0.250000 0.000000 -0.286200  -0.320000 0.712000 -0.616000
-0.300000 -0.050200 -0.270300  -0.824000 0.232000 -0.512000
-0.250000 -0.028200 -0.304800  -0.400000 0.416000 -0.808000
-0.266700 -0.050200 -0.304800  -0.504000 0.288000 -0.808000
-0.250000 -0.050200 -0.318700  -0.440000 0.320000 -0.832000
-0.288100 -0.100400 -0.304800  -0.408000 0.240000 -0.872000
-0.250000 -0.100400 -0.327300  -0.384000 0.152000 -0.904000
-0.300000 -0.118900 -0.304800  -0.376000 0.264000 -0.880000
-0.250000 -0.150600 -0.327500  -0.120000 0.152000 -0.976000
-0.300000 -0.150600 -0.319300  -0.256000 0.480000 -0.832000
-0.250000 -0.200800 -0.333200  0.168000 0.080000 -0.976000
-0.300000 -0.200800 -0.340600  0.016000 0.280000 -0.952000
-0.250000 -0.251000 -0.337900  0.384000 0.112000 -0.912000
-0.300000 -0.251000 -0.348000  0.192000 0.248000 -0.944000
-0.250000 -0.301200 -0.349000  0.296000 0.272000 -0.912000
-0.300000 -0.296900 -0.365800  0.296000 0.528000 -0.784000
-0.291400 -0.301200 -0.365800  0.272000 0.504000 -0.808000
-0.300000 -0.301200 -0.369600  0.320000 0.544000 -0.768000
-0.250000 -0.342900 -0.365800  0.504000 0.512000 -0.680000
-0.300000 -0.341100 -0.426800  -0.128000 0.536000 -0.832000
-0.250000 -0.351500 -0.379700  0.552000 0.712000 -0.416000
-0.273100 -0.351500 -0.426800  0.480000 0.752000 -0.440000
-0.250000 -0.368100 -0.426800  0.504000 0.792000 -0.336000
-0.250000 -0.351500 -0.379700  0.552000 0.712000 -0.416000
-0.200000 -0.393200 -0.426800  0.696000 0.632000 -0.328000
-0.241400 -0.351500 -0.365800  0.488000 0.640000 -0.576000
-0.200000 -0.365300 -0.365800  0.504000 0.768000 -0.376000
-0.200000 -0.351500 -0.343300  0.312000 0.640000 -0.696000
-0.241400 -0.351500 -0.365800  0.488000 0.640000 -0.576000
-0.200000 -0.301200 -0.313400  0.328000 0.152000 -0.928000
-0.250000 -0.342900 -0.365800  0.504000 0.512000 -0.680000
-0.250000 -0.301200 -0.349000  0.296000 0.272000 -0.912000
-0.291400 -0.301200 -0.365800  0.272000 0.504000 -0.808000
-0.291400 -0.301200 -0.365800  0.272000 0.504000 -0.808000
-0.200000 0.401700 0.005100  -0.168000 0.288000 0.936000
-0.200000 0.401700 0.005100  -0.168000 0.288000 0.936000
-0.200000 0.384800 0.000000  -0.112000 -0.232000 0.960000
-0.208400 0.401700 0.000000  -0.424000 0.248000 0.864000
-0.200000 0.351500 -0.009600  0.208000 -0.208000 0.952000
-0.250000 0.401700 -0.023000  -0.400000 -0.016000 0.912000
-0.250000 0.351500 -0.004200  0.040000 0.000000 0.992000
-0.300000 0.401700 -0.053800  -0.512000 0.520000 0.672000
-0.300000 0.351500 -0.024700  -0.384000 0.216000 0.896000
-0.307400 0.401700 -0.060900  -0.696000 0.688000 -0.152000
-0.344500 0.351500 -0.060900  -0.776000 0.288000 0.552000
-0.300000 0.351500 -0.024700  -0.384000 0.216000 0.896000
-0.350000 0.329400 -0.060900  -0.960000 0.152000 -0.224000
-0.300000 0.301200 -0.020200  -0.184000 0.032000 0.976000
-0.350000 0.301200 -0.051600  -0.832000 0.120000 0.528000
-0.300000 0.251000 -0.020200  0.208000 -0.160000 0.960000
-0.350000 0.251000 -0.040500  -0.808000 0.200000 0.544000
-0.300000 0.200800 -0.040500  0.440000 0.208000 0.864000
-0.350000 0.200800 -0.003200  -0.528000 -0.104000 0.832000
-0.350000 0.251000 -0.040500  -0.808000 0.200000 0.544000
-0.368900 0.200800 -0.060900  -0.952000 0.040000 -0.280000
-0.356100 0.251000 -0.060900  -0.936000 0.104000 -0.312000
-0.350000 0.251000 -0.040500  -0.808000 0.200000 0.544000
-0.353500 0.301200 -0.060900  -0.872000 0.080000 -0.464000
-0.350000 0.301200 -0.051600  -0.832000 0.120000 0.528000
-0.350000 0.329400 -0.060900  -0.960000 0.152000 -0.224000
-0.350000 0.329400 -0.060900  -0.960000 0.152000 -0.224000
-0.250000 -0.301200 0.006000  0.344000 -0.608000 0.704000
-0.250000 -0.301200 0.006000  0.344000 -0.608000 0.704000
-0.235900 -0.301200 0.000000  0.272000 -0.568000 0.768000
-0.250000 -0.307700 0.000000  0.288000 -0.576000 0.760000
-0.250000 -0.307700 0.000000  0.288000 -0.576000 0.760000
-0.169100 -0.301200 0.000000  -0.376000 -0.392000 0.832000
-0.169100 -0.301200 0.000000  -0.376000 -0.392000 0.832000
-0.150000 -0.301200 0.010200  -0.304000 -0.280000 0.904000
-0.150000 -0.346200 0.000000  -0.392000 -0.160000 0.904000
-0.100000 -0.301200 0.037800  -0.016000 -0.152000 0.984000
-0.100000 -0.344900 0.000000  0.072000 -0.528000 0.840000
-0.050000 -0.301200 0.029100  0.312000 -0.280000 0.904000
-0.050000 -0.329200 0.000000  0.264000 -0.624000 0.720000
-0.002200 -0.301200 0.000000  0.384000 -0.648000 0.648000
-0.050000 -0.351500 -0.027000  0.488000 -0.688000 0.528000
0.000000 -0.301200 -0.001900  0.408000 -0.704000 0.568000
-0.029100 -0.351500 -0.060900  0.584000 -0.680000 0.424000
0.000000 -0.326800 -0.060900  0.344000 -0.824000 0.432000
0.000000 -0.351500 -0.112600  0.544000 -0.704000 0.448000
0.032200 -0.301200 -0.060900  0.552000 -0.696000 0.448000
0.006400 -0.351500 -0.121900  0.552000 -0.776000 0.288000
0.050000 -0.301200 -0.085900  0.528000 -0.704000 0.464000
0.050000 -0.321600 -0.121900  0.584000 -0.712000 0.376000
0.074000 -0.301200 -0.121900  0.536000 -0.792000 0.264000
0.050000 -0.327900 -0.182900  0.552000 -0.824000 0.048000
0.088900 -0.301200 -0.182900  0.488000 -0.864000 0.072000
0.050000 -0.327900 -0.243900  0.480000 -0.872000 0.000000
0.091700 -0.301200 -0.243900  0.488000 -0.864000 -0.008000
0.050000 -0.326800 -0.304800  0.424000 -0.880000 -0.184000
0.085600 -0.301200 -0.304800  0.544000 -0.768000 -0.320000
0.050000 -0.303000 -0.365800  0.400000 -0.792000 -0.448000
0.052200 -0.301200 -0.365800  0.552000 -0.720000 -0.416000
0.050000 -0.301200 -0.369000  0.376000 -0.768000 -0.512000
0.100000 -0.263400 -0.365800  0.480000 -0.672000 -0.544000
0.050000 -0.251000 -0.406500  0.232000 -0.312000 -0.912000
0.100000 -0.251000 -0.380100  0.472000 -0.384000 -0.784000
0.050000 -0.206300 -0.365800  -0.112000 0.608000 -0.776000
0.100000 -0.224900 -0.365800  0.352000 0.456000 -0.808000
0.050000 -0.200800 -0.360800  -0.016000 0.576000 -0.808000
0.100000 -0.200800 -0.352600  0.240000 0.528000 -0.800000
0.100000 -0.224900 -0.365800  0.352000 0.456000 -0.808000
0.150000 -0.200800 -0.325200  0.160000 0.176000 -0.968000
0.118000 -0.251000 -0.365800  0.536000 -0.224000 -0.808000
0.150000 -0.251000 -0.336000  0.080000 -0.336000 -0.928000
0.100000 -0.263400 -0.365800  0.480000 -0.672000 -0.544000
0.150000 -0.287400 -0.304800  0.000000 -0.712000 -0.688000
0.100000 -0.292600 -0.304800  0.432000 -0.840000 -0.304000
0.150000 -0.287700 -0.243900  -0.208000 -0.968000 0.064000
0.100000 -0.296900 -0.243900  0.408000 -0.912000 0.000000
0.150000 -0.278000 -0.182900  -0.064000 -0.936000 0.328000
0.100000 -0.295100 -0.182900  0.440000 -0.880000 0.144000
0.150000 -0.253200 -0.121900  0.192000 -0.808000 0.552000
0.100000 -0.284500 -0.121900  0.464000 -0.744000 0.472000
0.150000 -0.251000 -0.118100  0.224000 -0.792000 0.560000
0.100000 -0.256900 -0.060900  0.456000 -0.800000 0.368000
0.110300 -0.251000 -0.060900  0.504000 -0.760000 0.392000
0.100000 -0.251000 -0.044600  0.544000 -0.608000 0.568000
0.130700 -0.200800 -0.060900  0.504000 0.008000 0.856000
0.100000 -0.200800 -0.044900  0.416000 0.232000 0.872000
0.100000 -0.170000 -0.060900  0.256000 0.296000 0.912000
0.050000 -0.200800 -0.016400  0.232000 0.648000 0.720000
0.076800 -0.150600 -0.060900  0.208000 0.432000 0.872000
0.050000 -0.150600 -0.053500  0.160000 0.448000 0.872000
0.050000 -0.140200 -0.060900  0.152000 0.504000 0.848000
0.000000 -0.150600 -0.047300  0.168000 0.600000 0.768000
0.000000 -0.136800 -0.060900  0.088000 0.520000 0.840000
-0.050000 -0.150600 -0.033100  0.152000 0.512000 0.840000
-0.050000 -0.119400 -0.060900  0.168000 0.528000 0.824000
-0.100000 -0.150600 -0.019000  0.512000 0.456000 0.720000
-0.100000 -0.105500 -0.060900  0.480000 0.464000 0.736000
-0.129500 -0.150600 0.000000  0.416000 0.264000 0.864000
-0.104300 -0.100400 -0.060900  0.528000 0.416000 0.728000
-0.150000 -0.104300 0.000000  0.496000 0.120000 0.848000
-0.150000 -0.100400 -0.001300  0.848000 0.032000 0.520000
-0.150600 -0.100400 0.000000  0.800000 0.040000 0.592000
-0.150000 -0.050200 -0.005700  0.768000 -0.024000 0.632000
-0.152800 -0.050200 0.000000  0.848000 0.032000 0.520000
-0.150000 0.000000 -0.001200  0.744000 0.064000 0.656000
-0.150800 0.000000 0.000000  0.744000 0.072000 0.656000
-0.150000 0.050200 -0.012600  0.624000 0.240000 0.728000
-0.163800 0.050200 0.000000  0.704000 0.216000 0.664000
-0.150000 0.100400 -0.027500  0.432000 0.296000 0.848000
-0.200000 0.089800 0.000000  0.216000 0.544000 0.800000
-0.200000 0.100400 -0.008800  0.176000 0.488000 0.848000
-0.238500 0.100400 0.000000  0.152000 0.496000 0.848000
-0.200000 0.150600 -0.023100  -0.360000 0.472000 0.792000
-0.250000 0.104200 0.000000  0.144000 0.480000 0.856000
-0.250000 0.150600 -0.042200  0.008000 0.568000 0.816000
-0.300000 0.112500 0.000000  -0.064000 0.472000 0.872000
-0.300000 0.150600 -0.036000  -0.360000 0.064000 0.920000
-0.300000 0.150600 -0.036000  -0.360000 0.064000 0.920000
-0.150000 -0.104300 0.000000  0.496000 0.120000 0.848000
-0.150000 -0.104300 0.000000  0.496000 0.120000 0.848000
-0.129500 -0.150600 0.000000  0.416000 0.264000 0.864000
-0.150000 -0.150600 0.010200  0.376000 0.208000 0.896000
-0.100000 -0.188700 0.000000  0.176000 0.408000 0.888000
-0.150000 -0.200800 0.013600  0.104000 0.200000 0.968000
-0.100000 -0.200800 0.005100  0.056000 0.344000 0.936000
-0.150000 -0.251000 0.002400  -0.056000 -0.176000 0.976000
-0.100000 -0.251000 0.029400  -0.128000 0.120000 0.976000
-0.150000 -0.301200 0.010200  -0.304000 -0.280000 0.904000
-0.100000 -0.301200 0.037800  -0.016000 -0.152000 0.984000
-0.100000 -0.251000 0.029400  -0.128000 0.120000 0.976000
-0.050000 -0.301200 0.029100  0.312000 -0.280000 0.904000
-0.050000 -0.251000 0.040700  0.136000 0.064000 0.984000
-0.002200 -0.301200 0.000000  0.384000 -0.648000 0.648000
0.000000 -0.251000 0.031300  0.424000 -0.232000 0.872000
0.000000 -0.299000 0.000000  0.440000 -0.464000 0.760000
0.050000 -0.251000 0.003400  0.512000 0.320000 0.792000
0.050000 -0.253500 0.000000  0.448000 -0.608000 0.648000
0.054200 -0.251000 0.000000  0.552000 0.192000 0.800000
0.050000 -0.286400 -0.060900  0.528000 -0.720000 0.440000
0.100000 -0.251000 -0.044600  0.544000 -0.608000 0.568000
0.100000 -0.256900 -0.060900  0.456000 -0.800000 0.368000
0.050000 -0.286400 -0.060900  0.528000 -0.720000 0.440000
0.100000 -0.284500 -0.121900  0.464000 -0.744000 0.472000
0.050000 -0.301200 -0.085900  0.528000 -0.704000 0.464000
0.074000 -0.301200 -0.121900  0.536000 -0.792000 0.264000
0.100000 -0.284500 -0.121900  0.464000 -0.744000 0.472000
0.088900 -0.301200 -0.182900  0.488000 -0.864000 0.072000
0.100000 -0.295100 -0.182900  0.440000 -0.880000 0.144000
0.091700 -0.301200 -0.243900  0.488000 -0.864000 -0.008000
0.100000 -0.296900 -0.243900  0.408000 -0.912000 0.000000
0.085600 -0.301200 -0.304800  0.544000 -0.768000 -0.320000
0.100000 -0.292600 -0.304800  0.432000 -0.840000 -0.304000
0.052200 -0.301200 -0.365800  0.552000 -0.720000 -0.416000
0.100000 -0.263400 -0.365800  0.480000 -0.672000 -0.544000
0.100000 -0.263400 -0.365800  0.480000 -0.672000 -0.544000
-0.100000 -0.200800 0.005100  0.056000 0.344000 0.936000
-0.100000 -0.200800 0.005100  0.056000 0.344000 0.936000
-0.050000 -0.200800 0.008600  0.032000 0.536000 0.840000
-0.100000 -0.188700 0.000000  0.176000 0.408000 0.888000
-0.050000 -0.190400 0.000000  0.096000 0.648000 0.744000
-0.100000 -0.150600 -0.019000  0.512000 0.456000 0.720000
-0.050000 -0.150600 -0.033100  0.152000 0.512000 0.840000
-0.050000 -0.190400 0.000000  0.096000 0.648000 0.744000
0.000000 -0.150600 -0.047300  0.168000 0.600000 0.768000
0.000000 -0.198800 0.000000  0.160000 0.688000 0.704000
0.050000 -0.150600 -0.053500  0.160000 0.448000 0.872000
0.006800 -0.200800 0.000000  0.232000 0.576000 0.776000
0.050000 -0.200800 -0.016400  0.232000 0.648000 0.720000
0.050000 -0.244100 0.000000  0.488000 0.320000 0.800000
0.100000 -0.200800 -0.044900  0.416000 0.232000 0.872000
0.054200 -0.251000 0.000000  0.552000 0.192000 0.800000
0.100000 -0.251000 -0.044600  0.544000 -0.608000 0.568000
0.100000 -0.251000 -0.044600  0.544000 -0.608000 0.568000
-0.100000 -0.200800 0.005100  0.056000 0.344000 0.936000
-0.100000 -0.200800 0.005100  0.056000 0.344000 0.936000
-0.100000 -0.251000 0.029400  -0.128000 0.120000 0.976000
-0.050000 -0.200800 0.008600  0.032000 0.536000 0.840000
-0.050000 -0.251000 0.040700  0.136000 0.064000 0.984000
0.000000 -0.200800 0.002300  0.160000 0.560000 0.808000
0.000000 -0.251000 0.031300  0.424000 -0.232000 0.872000
0.006800 -0.200800 0.000000  0.232000 0.576000 0.776000
0.050000 -0.251000 0.003400  0.512000 0.320000 0.792000
0.050000 -0.244100 0.000000  0.488000 0.320000 0.800000
0.054200 -0.251000 0.000000  0.552000 0.192000 0.800000
0.054200 -0.251000 0.000000  0.552000 0.192000 0.800000
-0.050000 -0.190400 0.000000  0.096000 0.648000 0.744000
-0.050000 -0.190400 0.000000  0.096000 0.648000 0.744000
-0.050000 -0.200800 0.008600  0.032000 0.536000 0.840000
0.000000 -0.198800 0.000000  0.160000 0.688000 0.704000
0.000000 -0.200800 0.002300  0.160000 0.560000 0.808000
0.006800 -0.200800 0.000000  0.232000 0.576000 0.776000
0.006800 -0.200800 0.000000  0.232000 0.576000 0.776000
0.500000 0.245700 0.000000  -0.568000 0.120000 0.808000
0.500000 0.245700 0.000000  -0.568000 0.120000 0.808000
0.500000 0.200800 0.008600  -0.576000 -0.176000 0.792000
0.488800 0.200800 0.000000  -0.512000 0.024000 0.856000
0.500000 0.181600 0.000000  -0.600000 -0.304000 0.728000
0.500000 0.181600 0.000000  -0.600000 -0.304000 0.728000
0.550000 0.174700 0.060900  -0.744000 -0.320000 0.576000
0.550000 0.174700 0.060900  -0.744000 -0.320000 0.576000
0.560700 0.150600 0.060900  -0.704000 -0.368000 0.592000
0.550000 0.150600 0.048400  -0.632000 -0.416000 0.640000
0.550000 0.150600 0.048400  -0.632000 -0.416000 0.640000
0.641200 0.050200 0.060900  -0.600000 -0.608000 0.512000
0.641200 0.050200 0.060900  -0.600000 -0.608000 0.512000
0.600000 0.093600 0.060900  -0.624000 -0.616000 0.464000
0.602900 0.050200 0.000000  -0.576000 -0.704000 0.400000
0.600000 0.053300 0.000000  -0.472000 -0.712000 0.512000
0.600000 0.050200 -0.005300  -0.440000 -0.752000 0.480000
0.600000 0.050200 -0.005300  -0.440000 -0.752000 0.480000
-0.915700 -0.150600 0.000000  -0.696000 -0.672000 0.232000
-0.915700 -0.150600 0.000000  -0.696000 -0.672000 0.232000
-0.950000 -0.123700 0.000000  -0.488000 -0.840000 0.216000
-0.932400 -0.150600 -0.060900  -0.688000 -0.696000 0.176000
-0.950000 -0.136200 -0.060900  -0.528000 -0.832000 0.152000
-0.943100 -0.150600 -0.121900  -0.672000 -0.720000 0.120000
-0.950000 -0.144800 -0.121900  -0.536000 -0.832000 0.120000
-0.950000 -0.150600 -0.169000  -0.584000 -0.792000 0.136000
-0.943100 -0.150600 -0.121900  -0.672000 -0.720000 0.120000
-0.950000 -0.152700 -0.182900  -0.600000 -0.784000 0.144000
-0.903800 -0.200800 -0.121900  -0.696000 -0.704000 0.120000
-0.907400 -0.200800 -0.182900  -0.688000 -0.712000 0.072000
-0.950000 -0.152700 -0.182900  -0.600000 -0.784000 0.144000
-0.914100 -0.200800 -0.243900  -0.664000 -0.728000 0.128000
-0.950000 -0.161800 -0.243900  -0.584000 -0.784000 0.176000
-0.931500 -0.200800 -0.304800  -0.648000 -0.520000 -0.544000
-0.950000 -0.180000 -0.304800  -0.552000 -0.600000 -0.568000
-0.900000 -0.200800 -0.331500  -0.576000 -0.328000 -0.736000
-0.950000 -0.150600 -0.330800  -0.416000 -0.432000 -0.792000
-0.900000 -0.150600 -0.338300  -0.216000 -0.104000 -0.968000
-0.900000 -0.200800 -0.331500  -0.576000 -0.328000 -0.736000
-0.850000 -0.150600 -0.349400  0.072000 0.056000 -0.992000
-0.850000 -0.200800 -0.351200  -0.168000 0.112000 -0.976000
-0.800000 -0.150600 -0.340500  0.312000 0.288000 -0.896000
-0.800000 -0.200800 -0.355700  0.080000 0.256000 -0.960000
-0.750000 -0.150600 -0.317800  0.416000 0.384000 -0.816000
-0.750000 -0.200800 -0.348300  0.272000 0.384000 -0.872000
-0.731900 -0.150600 -0.304800  0.424000 0.400000 -0.808000
-0.700000 -0.200800 -0.326900  0.208000 0.528000 -0.816000
-0.700000 -0.175200 -0.304800  0.352000 0.528000 -0.768000
-0.651700 -0.200800 -0.304800  0.320000 0.544000 -0.768000
-0.700000 -0.150600 -0.284500  0.376000 0.392000 -0.832000
-0.650000 -0.200800 -0.303800  0.136000 0.680000 -0.712000
-0.650000 -0.150600 -0.267500  0.376000 0.464000 -0.792000
-0.650000 -0.150600 -0.267500  0.376000 0.464000 -0.792000
-0.895700 -0.200800 -0.060900  -0.864000 -0.480000 0.136000
-0.895700 -0.200800 -0.060900  -0.864000 -0.480000 0.136000
-0.882700 -0.200800 0.000000  -0.840000 -0.496000 0.192000
-0.860100 -0.251000 -0.060900  -0.808000 -0.568000 0.112000
-0.852600 -0.251000 0.000000  -0.800000 -0.568000 0.168000
-0.852600 -0.251000 0.000000  -0.800000 -0.568000 0.168000
-0.700000 -0.502100 -0.057900  -0.752000 -0.512000 0.400000
-0.700000 -0.502100 -0.057900  -0.752000 -0.512000 0.400000
-0.700000 -0.507800 -0.060900  -0.864000 -0.200000 0.448000
-0.701200 -0.502100 -0.060900  -0.816000 -0.416000 0.392000
-0.700000 -0.552300 -0.082500  -0.736000 -0.280000 0.608000
-0.723300 -0.502100 -0.121900  -0.896000 -0.224000 0.368000
-0.750000 -0.552300 -0.119400  0.072000 0.512000 0.848000
-0.750000 -0.549900 -0.121900  0.080000 0.648000 0.752000
-0.800000 -0.552300 -0.095900  0.424000 0.264000 0.864000
-0.800000 -0.539500 -0.121900  0.176000 0.680000 0.704000
-0.850000 -0.552300 -0.082300  -0.704000 -0.480000 0.504000
-0.850000 -0.519700 -0.121900  0.200000 0.624000 0.752000
-0.868200 -0.552300 -0.121900  -0.520000 -0.224000 0.816000
-0.850000 -0.502100 -0.144600  0.400000 0.776000 0.480000
-0.900000 -0.511500 -0.121900  -0.520000 -0.664000 0.528000
-0.878700 -0.502100 -0.121900  0.408000 0.368000 0.832000
-0.900000 -0.502100 -0.104000  -0.752000 0.000000 0.656000
-0.900000 -0.492700 -0.121900  -0.520000 0.712000 0.448000
-0.906100 -0.502100 -0.121900  -0.920000 0.072000 0.376000
-0.900000 -0.462200 -0.182900  0.320000 0.888000 0.304000
-0.925200 -0.502100 -0.182900  -0.976000 -0.008000 0.208000
-0.900000 -0.451900 -0.229200  0.512000 0.832000 0.168000
-0.929300 -0.502100 -0.243900  -0.992000 0.064000 -0.008000
-0.921000 -0.451900 -0.243900  -0.184000 0.968000 0.160000
-0.920600 -0.502100 -0.304800  -0.888000 -0.288000 -0.344000
-0.912200 -0.451900 -0.304800  -0.496000 0.720000 -0.464000
-0.900000 -0.502100 -0.352600  -0.672000 0.128000 -0.720000
-0.900000 -0.451900 -0.318500  0.104000 0.872000 -0.464000
-0.864000 -0.502100 -0.365800  -0.304000 0.480000 -0.816000
-0.891000 -0.451900 -0.304800  0.528000 0.824000 -0.192000
-0.850000 -0.496800 -0.365800  -0.176000 0.616000 -0.760000
-0.850000 -0.473200 -0.304800  0.272000 0.896000 -0.336000
-0.800000 -0.496400 -0.365800  -0.664000 0.416000 -0.608000
-0.800000 -0.473000 -0.304800  -0.736000 0.648000 -0.168000
-0.786000 -0.451900 -0.365800  -0.872000 0.080000 -0.472000
-0.787800 -0.451900 -0.304800  -0.984000 0.136000 -0.040000
-0.796500 -0.401700 -0.365800  -0.952000 -0.168000 -0.232000
-0.797400 -0.401700 -0.304800  -0.928000 -0.344000 0.056000
-0.800000 -0.388500 -0.365800  -0.864000 -0.288000 -0.400000
-0.800000 -0.395700 -0.304800  -0.920000 -0.376000 0.000000
-0.797400 -0.401700 -0.304800  -0.928000 -0.344000 0.056000
-0.800000 -0.365300 -0.243900  -0.880000 -0.440000 0.160000
-0.781800 -0.401700 -0.243900  -0.912000 -0.336000 0.208000
-0.800000 -0.355500 -0.182900  -0.872000 -0.472000 0.032000
-0.775200 -0.401700 -0.182900  -0.904000 -0.400000 0.120000
-0.800000 -0.354700 -0.121900  -0.848000 -0.512000 0.080000
-0.771000 -0.401700 -0.121900  -0.872000 -0.456000 0.128000
-0.800000 -0.351500 -0.101400  -0.840000 -0.528000 0.104000
-0.762700 -0.401700 -0.060900  -0.840000 -0.496000 0.168000
-0.794800 -0.351500 -0.060900  -0.816000 -0.552000 0.144000
-0.800000 -0.351500 -0.101400  -0.840000 -0.528000 0.104000
-0.800000 -0.343900 -0.060900  -0.816000 -0.552000 0.128000
-0.800000 -0.343900 -0.060900  -0.816000 -0.552000 0.128000
-0.700000 0.150600 -0.043600  0.552000 0.712000 0.424000
-0.700000 0.150600 -0.043600  0.552000 0.712000 0.424000
-0.700000 0.159000 -0.060900  0.600000 0.776000 0.184000
-0.689800 0.150600 -0.060900  0.640000 0.736000 0.192000
-0.700000 0.150600 -0.089800  0.592000 0.744000 -0.280000
-0.650000 0.112000 -0.060900  0.672000 0.704000 0.200000
-0.700000 0.140000 -0.121900  0.536000 0.728000 -0.408000
-0.650000 0.100400 -0.098000  0.720000 0.624000 -0.288000
-0.657700 0.100400 -0.121900  0.728000 0.576000 -0.360000
-0.650000 0.089500 -0.121900  0.728000 0.552000 -0.384000
-0.700000 0.100400 -0.182100  0.536000 0.592000 -0.592000
-0.650000 0.050200 -0.178200  0.664000 0.544000 -0.504000
-0.700000 0.099700 -0.182900  0.504000 0.560000 -0.640000
-0.652800 0.050200 -0.182900  0.592000 0.536000 -0.592000
-0.700000 0.050200 -0.235800  0.504000 0.432000 -0.744000
-0.650000 0.045800 -0.182900  0.672000 0.432000 -0.592000
-0.700000 0.037400 -0.243900  0.440000 0.392000 -0.800000
-0.650000 0.000000 -0.224600  0.632000 0.368000 -0.672000
-0.669700 0.000000 -0.243900  0.480000 0.312000 -0.808000
-0.700000 0.037400 -0.243900  0.440000 0.392000 -0.800000
-0.700000 0.000000 -0.262900  0.392000 0.288000 -0.864000
-0.700000 0.000000 -0.262900  0.392000 0.288000 -0.864000
-0.650000 -0.541900 0.000000  -0.528000 -0.600000 0.592000
-0.650000 -0.541900 0.000000  -0.528000 -0.600000 0.592000
-0.633400 -0.552300 0.000000  -0.384000 -0.672000 0.624000
-0.650000 -0.552300 -0.012600  -0.496000 -0.592000 0.624000
-0.650000 -0.552300 -0.012600  -0.496000 -0.592000 0.624000
-0.452400 -0.100400 -0.060900  -0.344000 0.936000 -0.016000
-0.452400 -0.100400 -0.060900  -0.344000 0.936000 -0.016000
-0.450000 -0.099400 -0.060900  -0.760000 0.616000 0.160000
-0.450000 -0.100400 -0.057100  -0.400000 0.872000 0.264000
-0.406900 -0.050200 -0.060900  -0.848000 0.520000 0.000000
-0.434300 -0.100400 0.000000  -0.648000 0.720000 0.208000
-0.400000 -0.050200 -0.003200  -0.712000 0.672000 0.168000
-0.400000 -0.050900 0.000000  -0.776000 0.576000 0.224000
-0.399300 -0.050200 0.000000  -0.696000 0.680000 0.184000
-0.399300 -0.050200 0.000000  -0.696000 0.680000 0.184000
-0.466200 -0.502100 0.000000  0.712000 -0.616000 0.320000
-0.466200 -0.502100 0.000000  0.712000 -0.616000 0.320000
-0.450000 -0.489500 0.000000  0.584000 -0.760000 0.264000
-0.450000 -0.502100 -0.045100  0.560000 -0.696000 0.432000
-0.403800 -0.451900 0.000000  0.744000 -0.560000 0.352000
-0.400000 -0.502100 -0.024700  0.848000 -0.224000 0.464000
-0.400000 -0.451900 -0.009600  0.744000 -0.536000 0.376000
-0.403800 -0.451900 0.000000  0.744000 -0.560000 0.352000
-0.400000 -0.447100 0.000000  0.720000 -0.584000 0.344000
